# .PCD v0.7 - Point Cloud Data file format
VERSION 0.7
FIELDS x y z intensity
SIZE 4 4 4 4
TYPE F F F F
COUNT 1 1 1 1
WIDTH 1192
HEIGHT 1
VIEWPOINT 0 0 0 1 0 0 0
POINTS 1192
DATA ascii
-18.553043 22.098816 0.81574702 3416.9971
-18.319893 22.232956 0.874735 3960.7229
-18.128626 21.999063 0.71400601 3991.2639
-17.17177 21.958788 1.278255 2951.9641
-17.628395 22.940252 1.382125 2432.6941
-18.076048 21.686537 1.424383 4331.29
-18.482594 22.495459 1.2206531 3381.114
-18.541744 22.845175 1.3047529 2476.7429
-17.915657 22.921049 1.490472 2577.5569
-17.581188 22.482096 1.15552 3546.6089
-18.570951 22.442333 0.88527203 3085.0911
-17.697153 21.602167 1.485732 3754.7981
-17.070801 21.734514 0.75158602 2341.9541
-17.92243 21.924547 0.91388899 4572.1821
-18.539572 22.073353 1.308907 3821.521
-18.129099 22.067257 0.87298799 4432.127
-17.261778 21.571461 0.85939997 2710.574
-18.275827 21.910097 1.290013 4577.6401
-18.754004 22.292021 1.4748321 2891.2939
-18.139656 22.597641 0.96240902 3488.8701
-17.033459 22.034569 0.99987799 2531.074
-17.13731 22.377729 0.81764901 2459.292
-18.693075 22.004953 1.378659 3306.2271
-18.384443 22.218 0.74867499 3573.9419
-18.148529 22.957808 1.311443 2561.6399
-18.146067 21.908703 0.78902698 4171.6401
-18.738228 21.717501 0.94952297 2962.918
-18.63973 22.542507 1.489428 2797.4561
-17.405474 22.877756 1.2244509 2353.4751
-17.020069 21.818066 1.17532 2507.5591
-17.212149 21.51162 0.81284899 2488.6641
-18.290129 21.749149 0.751764 3709.155
-18.887005 22.956602 1.44451 1810.511
-17.693289 21.743044 0.99281502 4156.1919
-18.335199 22.470343 1.474236 3549.1541
-17.522545 22.537251 1.179402 3295.9221
-17.485886 22.725792 0.78261298 2544.1421
-17.956665 22.389725 1.341719 4259.4971
-18.069126 22.583584 1.192541 3716.3569
-17.584158 22.663338 1.138157 3092.5911
-17.650185 22.839357 1.113857 2725.8169
-17.973373 21.613247 1.172917 4343.9692
-17.106661 22.132524 1.1082 2741.1609
-18.752119 22.06885 1.2912771 3167.051
-17.214006 22.867472 0.76634699 1954.389
-17.436483 22.30192 1.235929 3546.1021
-18.600197 22.74534 0.81771398 2424.9351
-17.747562 22.469152 0.87630898 3600.7351
-17.334854 21.736246 0.959584 3185.1521
-18.534107 21.874004 0.848046 3508.73
-18.677155 22.177486 1.0394911 3298.5859
-18.217276 21.966068 1.464938 4470.0659
-18.730209 21.596689 0.85651797 2756.573
-17.418892 22.096846 1.26517 3700.1011
-18.94891 21.923847 1.324856 2601.7029
-17.737165 22.246098 1.096146 4384.3052
-17.769337 21.893894 0.81488103 4122.7578
-18.90579 22.412731 0.98078501 2452.354
-17.892029 22.137653 1.390914 4685.7959
-17.505976 21.546082 0.96995199 3326.625
-18.465799 22.664986 1.4378591 2914.1721
-17.129305 22.100998 1.232883 2825.8301
-17.249586 22.943415 1.276401 2033.356
-18.433363 22.922098 1.021979 2415.739
-18.735064 21.616081 1.1139849 2949.6609
-17.879436 21.965141 1.204504 4922.3701
-17.846109 22.908691 0.798944 2487.2529
-18.339346 22.684874 1.273614 3145.3921
-17.613295 22.243473 1.491877 3863.9509
-17.621075 22.387245 0.75172198 3345.6089
-18.247486 22.674957 1.395823 3215.0959
-18.90081 22.444605 1.13104 2482.76
-18.689674 22.97361 0.76027602 1910.641
-17.005762 22.202549 1.2412781 2461.554
-17.289454 22.989634 0.913149 1948.151
-17.967543 21.61631 0.79069698 3799.97
-18.965721 21.826603 1.251436 2544.104
-18.191233 22.913647 1.035854 2633.9851
-18.842348 21.851679 1.3572381 2846.937
-18.243011 22.102398 1.119294 4646.6089
-17.094873 21.58213 1.4642611 2422.832
-17.489765 21.938921 1.418821 3811.115
-18.403208 21.761852 1.460274 3884.906
-17.286934 22.694368 0.72847903 2259.4331
-17.960062 21.717127 0.76299 3928.9951
-17.087549 22.988413 1.133958 1776.902
-17.480289 21.845781 0.79288602 3425.5391
-18.8354 22.029888 1.133517 2935.6389
-18.366409 22.53924 1.309998 3479.1431
-18.248688 21.760427 1.48979 4155.521
-17.096292 22.158167 0.822115 2519.5239
-18.410023 22.208307 1.3879451 4010.156
-17.676702 21.800276 0.78756303 3803.6831
-18.820614 22.069588 1.072175 2950.5669
-17.130941 22.214382 0.75563598 2501.6479
-17.640728 22.29966 1.437572 3920.6089
-17.505077 22.600336 1.075122 3084.6179
-18.723194 22.857101 1.229522 2213.853
-18.160686 22.004633 1.052567 4772.915
-18.970257 22.100567 0.93729299 2474.604
-17.735308 22.634756 1.4529099 3253.2141
-17.699396 22.157305 1.3791749 4358.394
-18.202204 22.434137 0.792611 3583.3899
-17.54586 22.860935 1.09641 2553.385
-18.074118 21.944378 0.80285698 4287.0249
-18.072145 22.725679 0.84782797 3019.6121
-18.296242 22.034563 0.76165998 3902.9109
-18.97963 22.018494 1.2487 2547.918
-17.859865 22.758492 0.95435202 3020.6179
-17.86721 22.593172 0.81626302 3296.543
-18.533264 21.859623 1.213493 3833.5959
-18.466637 22.832144 1.206944 2617.4431
-18.015379 22.449825 1.095237 4120.1289
-17.355223 22.357853 0.92535597 3087.897
-17.998928 21.849396 1.206071 4888.9248
-17.876369 21.885258 0.87787098 4416.1128
-18.546295 22.252226 1.104658 3646.582
-17.024069 22.917109 1.041617 1773.921
-17.242163 22.89662 0.95856702 2052.0959
-18.245453 22.717239 1.373861 3115.446
-17.153404 22.395737 1.489424 2554.8049
-18.4212 21.942936 0.83684802 3809.394
-18.243465 22.659538 1.201164 3346.123
-18.501381 22.652004 0.77313399 2690.042
-18.989836 22.583216 1.314702 2143.0991
-18.971922 22.415255 1.31241 2347.7471
-18.771778 22.282459 1.393135 2919.322
-18.26685 22.622267 1.058503 3381.928
-17.776758 22.347134 0.76434702 3676.114
-17.328747 21.512728 1.324561 2935.0791
-17.771465 22.856758 1.462274 2695.343
-18.868143 22.998833 1.369356 1798.548
-18.107763 22.834555 1.352001 2888.1741
-17.366812 22.171827 1.23734 3491.9919
-17.473364 21.788803 1.15545 3776.6211
-17.598904 21.559196 1.458642 3515.969
-17.237181 22.898911 0.84838599 1989.205
-18.789181 22.61907 0.71275097 2228.6951
-18.936089 22.039698 0.99393201 2603.7571
-18.120596 21.56492 1.023556 4048.6831
-18.489502 21.708687 1.041173 3704.522
-18.45138 22.595407 0.95500302 3089.707
-18.497129 22.224804 0.86518198 3546.6599
-17.042013 21.702736 1.488028 2393.416
-17.349209 22.734446 0.88927799 2427.7871
-18.86573 22.815737 0.89128399 1991.856
-17.696976 22.905272 1.051796 2586.2451
-17.689051 22.885614 1.031006 2618.4021
-18.81649 22.876869 0.98213601 2013.678
-18.400314 22.007797 0.894557 3988.488
-17.260075 22.825558 1.498407 2156.957
-17.919249 22.146257 0.820512 4266.4932
-18.541594 22.836927 0.81493598 2334.219
-17.926783 21.566572 0.779791 3650.1819
-17.107683 21.742462 0.74450701 2415.425
-18.4268 21.587078 0.74757397 3210.582
-18.777779 22.286901 0.85088801 2763.76
-18.204948 21.621269 1.325611 4162.439
-18.937166 22.664047 1.224741 2155.3101
-18.272861 22.000036 1.237509 4647.4448
-18.981281 21.71316 1.479189 2355.0071
-18.60928 22.500072 1.436118 2981.4341
-18.902601 22.443279 1.1667939 2484.7319
-17.707289 22.945997 1.13467 2519.073
-18.03413 22.666544 0.89266801 3246.968
-18.436562 21.832848 1.438579 3920.197
-18.877413 21.519419 0.84782702 2353.1211
-18.900169 22.922785 1.1499979 1876.641
-17.840799 21.949005 1.131063 4841.688
-17.875082 22.074375 1.1757669 4893.6919
-17.122816 22.173414 1.3726881 2733.2209
-17.800222 22.029448 1.165583 4798.6348
-18.492283 22.821747 0.85047901 2451.251
-18.061497 21.589838 0.72927302 3587.834
-17.795799 21.681904 1.331199 4309.9849
-18.340094 21.687197 1.29324 4090.9761
-18.858164 21.915833 0.77640003 2600.1489
-18.016624 22.524906 1.395378 3805.2471
-17.849653 21.897629 0.86415797 4363.4819
-17.559452 21.851412 1.181564 4110.1479
-17.604906 21.989281 1.459463 4086.522
-18.689926 22.646528 0.89799303 2518.6311
-17.674917 22.004784 0.772569 3880.7881
-17.036106 22.862732 1.2388279 1869.2271
-17.740835 21.751488 1.123495 4406.1509
-17.676956 21.54579 1.3145061 3777.072
-18.43635 22.848616 0.86784101 2474.1689
-17.117128 22.175438 0.99984002 2702.2561
-17.247807 22.131226 1.136495 3150.5049
-18.340908 21.627504 0.791502 3516.5681
-17.360001 22.335846 0.92120498 3124.771
-18.304405 22.319172 0.73813403 3551.5049
-17.205561 22.159311 1.153517 3014.4561
-17.123735 22.776148 0.84561199 2003.3361
-17.121592 21.740477 1.2514451 2715.0291
-17.061525 21.500992 1.449911 2280.8149
-17.468473 22.817104 1.455573 2480.7759
-18.925688 22.167343 0.99377102 2594.124
-17.449083 22.767796 1.354004 2608.5991
-18.486452 21.590111 1.4692611 3384.9021
-17.439041 22.885052 1.128908 2377.502
-18.271116 22.683973 0.78569698 2918.908
-18.467915 22.30372 1.271672 3798.449
-18.418871 22.506207 1.330373 3451.384
-17.562756 22.263992 1.238003 3960.967
-17.450197 22.560892 1.220806 3091.5439
-18.891781 21.779858 0.98602998 2646.178
-18.215334 22.872211 1.052107 2733.7419
-17.4512 22.658035 1.4924949 2747.6389
-18.230473 21.577446 1.033259 3969.918
-18.409672 22.623194 1.011644 3141.3379
-17.268808 22.210917 1.1182311 3152.958
-18.182751 21.510395 1.15188 3920.261
-18.931284 21.821896 0.962183 2556.802
-17.649569 21.917635 1.117488 4399.8799
-18.540754 22.463482 1.200618 3317.342
-18.125414 21.941757 0.71943003 3999.783
-17.392422 22.211916 0.90245402 3327.5791
-17.011738 22.878208 0.75819701 1698.8879
-18.251865 21.519066 1.39203 3754.8511
-17.040255 22.689285 1.206478 2086.5791
-17.701155 22.411007 0.86293101 3644.7151
-17.351637 22.373051 0.700445 2763.8091
-17.366133 22.832355 0.91659302 2298.929
-18.363756 21.551252 0.89766598 3508.5271
-18.353323 21.754314 0.91310501 3944.75
-18.513872 21.992739 0.97013003 3796.6279
-18.53573 22.05479 1.217423 3875.0271
-17.447025 22.169193 1.203732 3746.9431
-17.175713 22.528702 1.060635 2527.2959
-18.763418 21.520557 1.021722 2710.825
-17.318039 22.066528 0.96523201 3279.522
-18.555447 22.3158 1.306676 3522.0439
-17.554983 22.098122 1.038897 4053.1079
-18.468943 21.67601 0.749282 3272.2009
-18.270832 22.841888 1.274213 2796.9939
-17.760685 22.19083 1.144454 4558.8281
-18.412071 22.39349 0.86978298 3487.5291
-18.978003 21.941917 1.138376 2546.2671
-18.274651 21.97711 1.4233249 4441.1641
-18.105659 21.650551 0.980367 4231.8472
-18.813082 22.161224 0.96680802 2871.1299
-18.48764 22.600119 0.88513303 2946.2429
-18.142776 22.477442 1.270987 3989.2271
-18.344179 22.50803 1.451423 3472.783
-17.082102 21.79425 0.843575 2485.2
-17.735447 22.599981 1.424798 3377.2361
-17.005947 22.002192 1.057519 2489.4851
-17.641613 22.729078 1.22458 3010.958
-18.724783 22.208567 1.237108 3184.334
-17.908024 22.333151 1.2601891 4452.0732
-18.672857 21.647911 1.165983 3168.8469
-18.197683 21.506599 0.93824399 3700.8579
-18.872704 22.660769 0.74899501 2081.917
-17.41988 21.836651 0.737207 3169.772
-17.468166 22.545467 0.876454 2967.2461
-17.234398 22.214647 1.260555 3056.446
-18.17754 22.295748 1.238186 4462.5142
-18.594433 21.681789 1.383305 3359.7419
-18.390879 21.672483 1.074105 3918.791
-17.87608 21.954344 1.325887 4838.9199
-17.391462 21.902723 1.26105 3614.0039
-18.771351 21.797279 1.024955 2999.906
-18.578287 22.950533 1.333505 2216.5559
-17.074503 21.585472 1.1767679 2464.3679
-17.782681 21.675007 1.312079 4290.3379
-18.246746 22.225491 0.77071202 3857.9719
-17.69628 21.997965 1.2207071 4575.9072
-18.625992 22.637711 0.94977802 2686.5071
-18.898092 21.738506 1.2542911 2662.5549
-18.336884 22.208809 0.99397397 4168.271
-18.124592 22.534586 1.457665 3655.782
-17.161022 22.890791 1.307923 1992.797
-18.714537 21.95014 1.192749 3304.47
-17.116013 22.173485 0.97979599 2688.1411
-18.87207 21.849197 0.79487199 2567.5581
-17.015377 22.003986 1.334968 2515.4509
-18.626413 22.590771 1.3565201 2831.4131
-17.203442 21.939547 1.100474 3033.8611
-17.823273 22.83802 0.788881 2628.0811
-18.067299 21.974854 1.164992 4968.2681
-18.478987 22.886395 0.743487 2248.6799
-17.816149 22.598696 0.81030899 3238.1379
-17.025896 22.926987 0.99611002 1754.538
-17.211996 22.21212 0.75465202 2681.999
-17.388506 22.53455 1.138919 3005.8921
-18.027964 21.920256 1.2320091 4959.502
-18.87254 22.676729 1.376635 2221.741
-18.588793 22.919567 1.1581759 2278.9121
-17.990299 22.716051 1.249531 3299.728
-17.705336 22.444279 1.463022 3694.4221
-18.588655 22.319225 0.98678797 3346.989
-17.003166 22.355244 0.89701098 2260.728
-18.344503 21.808748 1.009132 4195.7192
-18.686903 21.85076 1.453565 3208.4121
-18.857727 22.071133 1.397432 2809.405
-18.612543 22.960661 1.47386 2106.968
-18.085991 22.988123 1.168804 2519.2051
-17.230064 22.224669 0.82218599 2799.521
-18.670599 22.158417 1.365871 3328.2041
-18.920776 21.755693 1.395702 2569.6169
-17.205608 22.54739 0.735542 2329.4629
-18.009451 22.66003 0.83740097 3190.387
-17.235132 22.269884 0.79629999 2745.9971
-18.216522 22.405695 1.081334 4079.7939
-17.59977 21.817966 1.264338 4175.5059
-17.855906 22.668427 0.89000499 3197.637
-18.931616 22.694365 0.70667899 1927.959
-17.436543 22.814587 0.87218302 2394.063
-18.695894 21.853983 0.77324098 2962.5869
-18.386034 22.318405 0.96998799 3836.3889
-17.170481 22.416386 0.73340499 2404.783
-17.9522 22.756371 1.219961 3175.0491
-18.564835 21.520891 0.84853703 2990.2361
-18.927238 21.772423 0.76861399 2383.614
-18.886539 21.832975 1.122512 2747.4719
-18.238142 21.913225 1.1100301 4662.7168
-17.744678 21.927034 0.98395902 4475.5288
-17.848618 22.623997 0.72806698 3058.0891
-17.682739 22.149084 1.157787 4445.7778
-18.176073 22.625322 0.77781999 3124.48
-18.500822 22.675751 0.83715701 2718.6951
-17.639816 21.872471 1.37277 4252.2598
-18.438021 22.779026 1.496549 2650.1509
-18.889063 22.049868 1.488592 2664.9551
-18.279892 22.663174 1.322154 3261.449
-17.79756 21.521255 0.73987597 3374.064
-17.197489 22.032213 0.93738103 2917.0991
-17.910755 22.469303 0.888098 3772.1819
-18.603201 22.573763 0.93290901 2833.8379
-18.80744 21.571877 0.81647801 2522.2759
-18.659649 21.708006 0.80226398 2978.687
-18.993582 21.523899 1.225033 2257.8411
-18.184006 21.770462 1.146253 4589.5381
-17.880638 22.250576 0.82451302 4105.0029
-18.892633 22.376045 0.89812201 2463.8621
-18.414907 21.997061 1.478655 4000.623
-17.575727 22.249624 1.3094209 3986.313
-18.857616 22.893499 0.91793698 1913.2111
-18.877119 22.873713 0.87114799 1893.328
-18.378645 21.925339 0.931297 4094.51
-17.986683 22.170467 0.806113 4221.606
-17.329432 22.873932 0.83533198 2130.925
-17.863628 21.738241 1.151368 4589.3462
-17.783604 21.64212 1.28148 4231.7529
-18.680475 22.03241 1.244451 3410.4709
-17.934708 22.155008 1.047081 4754.3188
-17.505489 22.550276 1.192944 3231.238
-17.886902 21.629236 1.0009201 4202.0698
-18.973108 22.297201 1.311905 2441.656
-17.545179 22.206314 1.308537 3964.4541
-17.688463 22.123562 0.854967 4060.5161
-18.4501 22.882536 1.200249 2523.394
-17.009178 21.681833 0.79519302 2225.3611
-18.45048 22.906794 0.89306599 2359.1421
-18.17141 22.01292 0.89375901 4451.0449
-18.782988 21.60837 1.474978 2714.356
-17.605839 22.106886 1.00995 4156.5952
-18.420889 22.536573 0.88592702 3197.542
-18.651382 21.72921 0.75262499 2945.0349
-17.799751 22.933064 0.880292 2483.9551
-17.146898 22.620077 0.73268598 2145.3159
-18.036184 22.591787 1.03899 3629.905
-18.551769 22.969732 0.77313399 2060.1179
-17.565285 22.858965 1.2673481 2588.884
-17.067114 22.732262 0.70635301 1886.671
-17.617514 22.703344 1.0224791 2989.5349
-18.926092 21.509806 0.75555801 2178.2051
-18.555103 22.340923 1.444694 3368.719
-17.950611 22.938044 1.302009 2641.6289
-17.078789 22.037491 1.321501 2681.2561
-17.681864 22.27622 1.0535721 4170.3188
-17.04425 21.742437 0.96715999 2458.2
-18.520847 21.631351 1.122193 3537.9719
-17.530766 22.325457 1.128679 3756.04
-17.050398 22.547449 1.051628 2248.7471
-18.775087 22.466679 0.82492399 2552.021
-18.914671 21.809084 0.96621501 2593.73
-17.279785 22.997791 1.277807 1983.8521
-17.237083 21.585739 0.7626 2570.7329
-17.659168 22.89171 1.177268 2615.293
-17.41176 22.30302 0.90597498 3280.2
-17.112726 22.754013 1.167711 2121.4919
-18.733763 22.915625 0.85921001 2005.686
-18.408607 22.581116 0.79186302 2991.8049
-17.043243 22.311268 0.883641 2367.0291
-18.306843 22.934736 1.193539 2540.7461
-17.74069 22.486916 1.395866 3723.864
-17.134443 22.433104 1.279138 2573.301
-18.254694 22.155272 1.039405 4485.2358
-17.093069 21.632833 0.707156 2272.489
-18.608953 22.891659 0.97641897 2256.45
-17.62171 22.503841 1.201833 3579.1919
-17.714085 21.581257 0.94764203 3785.646
-17.336924 22.96195 1.124375 2109.0481
-18.69898 22.574287 1.303876 2733.479
-17.865515 22.099955 1.307943 4808.9448
-17.659382 21.905748 1.4872431 4141.085
-17.20719 21.691845 0.93201602 2785.011
-17.476583 21.511126 1.428921 3194.136
-18.483625 22.524551 1.105392 3293.8101
-18.116257 22.041822 0.929241 4593.1611
-17.63501 21.570547 0.94363898 3614.366
-18.043795 22.532265 1.17936 3889.082
-18.354279 21.524237 0.944547 3528.282
-18.879835 22.871902 0.92577797 1916.0601
-18.272701 21.90324 0.74604899 3876.5691
-18.038122 22.668318 1.415023 3345.967
-17.846514 22.346609 1.251618 4361.6289
-18.969513 22.653996 1.015385 2081.8169
-17.583729 22.039698 1.496929 3958.75
-18.787134 21.528654 1.075707 2692.2319
-17.939674 21.597345 0.75949401 3676.9719
-17.615957 22.303389 1.038444 3950.5911
-17.751049 22.097528 1.173256 4663.292
-18.705904 22.017195 0.83403498 3062.7371
-17.309345 22.718864 1.0654581 2485.2471
-18.114065 21.960796 1.246415 4917.8618
-17.506044 22.485279 0.98556203 3277.677
-18.513252 22.9928 1.488248 2143.9299
-17.446947 22.605267 1.098304 2971.6689
-17.127325 22.774302 1.379367 2089.187
-17.374065 22.247841 1.488583 3254.1521
-17.68676 21.946884 1.167501 4537.2192
-17.351917 21.996288 0.90304202 3315.1899
-18.824459 22.743275 1.055647 2219.2361
-18.654062 22.123407 1.2252311 3463.4131
-18.517584 21.600077 1.094206 3474.5779
-18.476582 22.088594 1.206951 4048.4961
-18.966503 21.748419 0.71579498 2240.2671
-17.209906 22.129372 0.96507502 2947.8059
-17.606359 21.989592 1.1905 4328.436
-17.347012 22.496086 1.143276 2983.804
-17.166248 22.828691 0.72472602 1917.3571
-18.245586 22.533642 0.73774201 3207.6599
-17.98419 22.017042 1.285193 4961.311
-18.810053 22.707682 1.209905 2317.9341
-18.553434 22.227652 0.85036898 3377.5659
-18.614037 21.741695 0.89750803 3256.769
-18.273237 22.584469 0.77891898 3137.6069
-17.150524 21.621967 0.94220001 2589.3611
-17.739191 21.952894 0.72257203 3851.554
-17.372902 22.757103 0.79769897 2349.2891
-18.116308 22.376982 1.21029 4326.2012
-17.137032 21.545284 0.92993897 2469.8511
-18.803616 22.222687 0.813851 2710.7649
-17.222115 21.98691 0.86822701 2914.856
-17.609035 21.576195 0.89077997 3501.199
-18.153599 22.825268 0.76396197 2638.8159
-18.165331 21.915232 0.85017902 4321.9141
-18.82646 22.126186 1.369827 2893.853
-17.276905 21.773127 0.71629202 2765.0139
-17.931486 22.480427 1.360395 3964.385
-18.03697 22.791012 1.434008 2972.957
-17.547586 21.523102 1.360219 3429.875
-17.850718 21.898945 0.73160601 3993.959
-17.986956 22.698183 0.78380501 3010.5071
-18.002066 22.468653 1.35737 4017.9839
-17.240782 22.514326 0.91141498 2598.449
-18.432981 22.412729 0.82593799 3338.3621
-17.089504 22.182711 1.003926 2630.4309
-18.937298 22.996321 1.016055 1721.161
-17.436569 22.067575 0.72877097 3238.1809
-18.699802 21.950766 1.355383 3297.52
-17.696709 22.336699 0.85009599 3765.6721
-17.422821 22.797071 0.78727198 2337.7561
-18.691593 22.875521 0.879228 2129.7151
-17.854574 22.757332 1.2524 3129.9971
-17.882763 22.429848 1.1305211 4155.0962
-18.549198 22.016125 1.083977 3801.2981
-17.908094 22.181145 0.90302002 4426.9038
-18.888239 22.627451 1.0130219 2254.666
-17.776524 22.117275 0.97517198 4487.3521
-17.034758 22.015606 1.238255 2586.1189
-18.890873 21.594379 1.21312 2553.1631
-17.433193 22.792795 1.329476 2542.512
-17.348827 21.974022 1.4345551 3379.0271
-17.956038 21.663427 0.99849999 4325.9492
-17.859671 22.909912 0.86942202 2555.041
-17.935307 22.63146 1.4450949 3417.637
-18.224749 22.47106 0.70015597 3284.606
-18.354013 22.399803 1.299667 3860.699
-18.685768 21.53211 1.3502589 2920.9399
-17.691116 22.22002 1.249868 4361.8408
-18.989664 21.686342 1.047385 2379.696
-18.252686 21.625975 1.323364 4101.8418
-17.537088 22.907129 1.005843 2409.793
-17.807461 21.973623 1.271961 4794.1162
-17.991081 22.421297 1.168555 4242.4629
-18.699581 21.908609 0.86643898 3107.4641
-18.442568 22.743732 0.76786703 2582.9861
-17.293777 21.755806 0.86996698 2998.856
-18.108715 21.896193 0.97813898 4664.9731
-18.47777 21.856346 0.93539202 3790.99
-18.016211 22.836807 1.408386 2867.0801
-18.52552 22.196482 0.73074597 3257.3789
-18.475576 21.633165 1.38205 3587.1021
-17.63604 21.554552 0.88287503 3492.9409
-17.969511 22.439236 1.451386 3977.5601
-18.972788 22.5305 0.77643198 2077.1399
-18.590347 22.534288 1.145587 3054.488
-17.595108 22.24369 1.120188 4066.0559
-18.746296 22.453192 1.089234 2817.522
-18.5329 22.090942 0.76539999 3375.8
-18.13588 21.811628 1.453146 4472.1509
-18.142454 21.817793 1.37196 4616.5352
-17.542053 22.207548 1.438792 3817.3379
-17.492823 22.084187 0.83656001 3580.6221
-18.956362 22.48947 1.468399 2245.9319
-17.547651 22.844646 1.1352969 2601.1411
-17.773369 22.071339 1.071095 4659.5391
-17.079151 22.887201 1.299614 1890.351
-17.881226 22.037743 1.309418 4866.1602
-17.15457 21.858889 1.013454 2825.7119
-18.380585 22.527948 0.936221 3348.616
-17.120054 22.090591 1.417016 2732.8259
-17.147999 22.550503 1.1377029 2459.6111
-18.928377 22.444862 1.192202 2427.365
-17.446388 21.641209 0.90264302 3281.6201
-18.253166 21.864038 0.90929103 4284.1602
-17.824064 21.833769 0.86646998 4274.1318
-18.287561 22.729822 0.98900503 3012.3191
-18.05694 22.978304 1.2680219 2544.5959
-18.509073 22.061003 1.472465 3739.395
-17.096613 22.603848 1.2308739 2291.7971
-17.40666 21.856163 1.07042 3598.332
-17.034492 22.782343 1.028428 1942.726
-17.991684 22.595392 1.037815 3620.9189
-17.763538 21.955082 1.05106 4629.1382
-18.996023 22.086147 0.96112901 2431.262
-17.554178 22.013695 1.142071 4158.6938
-18.001949 21.857447 1.251356 4887.7642
-17.227209 21.588659 0.95051003 2734.2571
-17.409864 22.718618 0.97289097 2609.2649
-18.097235 22.839846 0.95367098 2816.1499
-17.293205 22.504509 1.266508 2843.3149
-17.75646 22.024611 1.036852 4601.7881
-18.332956 22.514229 1.2072361 3635.4519
-17.616278 22.331833 1.4322309 3813.0491
-17.421274 21.64245 1.179031 3417.157
-18.323854 21.555071 1.491079 3603.4199
-18.177254 22.276728 0.98630202 4334.019
-18.087584 22.800039 1.069307 3003.3391
-17.624115 21.684959 1.47243 3802.98
-17.633484 22.580317 1.248486 3393.3911
-17.015358 22.073105 1.052913 2504.384
-17.483515 21.815603 1.459076 3655.29
-18.332024 22.395403 1.457908 3750.657
-18.671146 22.947115 0.72534901 1943.441
-18.163773 22.698538 0.852597 3057.2319
-18.488058 21.948254 1.474853 3798.1731
-18.865629 21.530539 1.450227 2460.24
-17.321459 21.590288 1.056883 3032.5759
-18.474174 21.972879 1.243879 4073.311
-18.00396 22.80467 1.378343 2977.4021
-18.898993 21.855988 1.331327 2708.302
-18.777372 21.590214 1.081291 2799.0439
-18.317385 21.551664 1.452979 3661.031
-17.651524 22.815849 1.428323 2718.6069
-18.566637 22.763996 1.404706 2568.4851
-17.798386 22.858679 1.2873681 2800.1631
-18.202612 22.252321 1.26025 4511.2168
-17.7897 22.596634 0.97791302 3449.4141
-18.480913 22.930721 1.06818 2364.1819
-17.098339 22.737278 1.030151 2096.0659
-17.943787 22.738892 1.027414 3166.751
-18.844967 22.140482 1.482219 2757.325
-17.982468 22.652126 0.91350102 3316.3989
-18.166561 22.787441 1.204538 3034.2981
-18.576487 21.529177 0.95936602 3101.896
-17.930832 21.630232 0.73336798 3678.4751
-17.972988 21.973167 0.89329797 4564.0601
-18.544167 22.810797 1.129992 2553.093
-18.202036 22.757626 0.92105103 2953.99
-18.564964 22.823009 0.84382701 2354.7251
-18.935183 22.101999 0.98406303 2588.53
-18.230051 22.437935 0.850806 3658.5911
-17.423094 21.756245 0.781259 3189.626
-18.319517 21.972321 1.096211 4489.8242
-18.540707 22.879032 1.027274 2386.752
-18.785219 21.589205 1.3196191 2778.3479
-17.929098 21.805271 1.097555 4746.3491
-17.049149 22.219376 0.71484703 2285.592
-18.257109 22.180128 1.149919 4541.0811
-17.691387 21.937466 0.914038 4233.9648
-18.131903 22.859762 0.72682703 2524.6389
-17.520264 21.753881 1.439099 3709.5039
-17.393612 22.175222 1.128673 3562.5271
-17.806295 21.817421 0.90039903 4308.0508
-17.295321 22.129572 0.995947 3215.436
-18.825972 21.50325 0.72777897 2323.438
-17.120195 22.299349 1.10568 2670.1399
-17.041842 22.568247 0.823116 2098.1831
-18.535545 22.476299 1.417974 3202.698
-18.350084 21.620565 1.4557559 3753.9221
-17.014368 22.516199 1.4878041 2154.4641
-17.389639 22.620575 0.84095001 2650.3081
-17.780916 22.902786 0.91632497 2572.689
-18.00086 22.214008 1.2362781 4775.0181
-18.452343 22.270851 0.94952399 3729.3589
-18.540293 22.765215 0.862198 2510.571
-18.64337 21.599115 1.162792 3172.5559
-17.862005 22.309732 1.186644 4483.6841
-17.664852 21.961176 1.143838 4476.3369
-17.022821 22.306257 1.0688519 2420.2859
-17.230711 21.708984 0.91762298 2847.0039
-18.730383 21.68144 0.85812998 2854.1819
-17.417498 22.412983 0.87944001 3100.541
-17.816292 22.515926 1.496173 3603.2209
-17.083845 21.996777 0.92033601 2607.48
-17.745665 22.548534 1.120348 3644.5281
-18.996656 21.508886 0.90931898 2156.092
-17.354475 22.335178 1.332599 3232.8359
-17.413465 22.368067 1.431698 3261.196
-18.671471 22.061096 1.014824 3358.1951
-17.735897 22.455725 1.177024 3912.4761
-17.22661 22.724693 1.257954 2351.094
-17.693148 22.145525 1.175202 4480.4839
-17.601587 21.599958 0.95729202 3629.3081
-17.488855 22.058254 0.72453898 3354.073
-18.28141 21.612692 1.221756 4066.125
-18.582197 22.178749 1.217973 3646.366
-18.340561 22.08053 1.194911 4454.374
-18.93292 21.835005 0.77101099 2402.001
-17.999657 22.188629 1.3811001 4679.9902
-18.446093 21.659966 1.3298939 3755.179
-17.171898 22.284781 0.77270103 2564.8401
-17.235128 22.981747 0.88404799 1887.733
-17.43001 21.553894 0.74066699 2882.033
-17.161255 22.616896 1.399267 2354.313
-18.01318 21.784805 0.803038 4152.6128
-18.764 22.139629 0.92040801 2973.7771
-17.79122 21.753822 1.2397979 4521.71
-18.841919 21.615965 0.854954 2531.1741
-18.428644 22.626806 1.031293 3115.1011
-18.528303 22.932188 1.4874229 2241.457
-18.041128 22.242229 1.260673 4699.0361
-18.78207 22.042994 0.96317297 2994.7839
-18.811361 22.132954 1.43808 2885.7271
-18.867435 21.838621 1.178267 2810.6299
-18.975294 22.972803 1.095516 1719.12
-18.477381 22.496866 0.714863 2923.7629
-17.24254 22.179041 1.3081501 3091.196
-18.074039 22.777922 1.452248 2986.374
-18.301706 22.224667 0.72255099 3651.0759
-17.144318 22.845247 0.70857799 1860.03
-18.620571 22.95669 1.047186 2151.7241
-17.46414 22.207207 0.86369997 3464.571
-18.330099 21.740702 0.78412002 3706.0171
-18.237148 22.384043 1.408231 4009.3391
-17.223017 22.969854 1.134657 1961.869
-18.08135 21.813507 1.342795 4709.04
-17.698921 22.412214 1.431579 3804.6011
-18.000156 21.700567 1.379011 4457.499
-18.850491 21.919931 1.266371 2883.2539
-17.086914 21.732948 0.77032602 2392.7329
-17.127611 22.143494 1.000421 2745.0161
-18.953114 21.751673 1.093679 2523.4751
-17.450644 22.984789 0.92079997 2128.0649
-18.625689 22.866501 1.14943 2331.146
-17.512012 21.939119 0.80742699 3581.7859
-18.055733 22.617687 0.73977202 3131.9409
-17.12022 22.465683 1.432075 2445.311
-17.856892 22.807522 1.253706 2984.261
-17.324533 21.834846 1.190258 3370.1211
-17.282946 21.684074 1.366456 3045.656
-17.435278 22.488155 1.46145 3075.8579
-18.788923 22.218266 1.259194 2987.6699
-17.268948 21.823536 0.79757702 2894.3181
-17.37142 22.606363 0.80288798 2603.5061
-17.725248 22.630028 0.89419597 3192.9751
-18.446259 21.756798 0.85175598 3624.323
-17.734358 22.638788 1.393923 3297.6699
-18.411592 21.632626 1.3204809 3791.072
-17.176727 22.784872 1.470876 2112.2229
-18.724672 22.6782 1.106413 2507.6941
-18.482992 22.372616 0.90686703 3429.2329
-18.483627 22.812357 0.95154798 2556.8311
-18.059904 22.158278 1.444801 4593.1899
-17.258713 22.277008 1.009005 3007.1211
-18.397968 22.007692 1.081322 4264.311
-17.664743 21.500872 0.77470702 3241.699
-18.128195 22.404749 1.044475 4151.2959
-17.115835 22.604416 1.2706749 2323.355
-18.037689 21.928329 0.923567 4616.9219
-18.398092 22.952267 1.435189 2357.821
-18.423985 22.820641 0.93926901 2602.5481
-18.604639 21.940624 1.345224 3596.5911
-17.117308 22.626715 0.93595898 2230.5129
-18.635227 22.0308 1.30747 3531.0449
-17.660583 22.539133 1.152388 3550.7939
-17.555979 22.598589 0.848499 2977.9331
-17.295305 22.178288 1.1729881 3269.876
-17.316202 22.408398 0.80712098 2795.2939
-17.992605 22.964767 1.388965 2542.5381
-18.572203 22.363361 1.061555 3381.543
-18.880774 22.464533 0.85726303 2370.7681
-18.264305 22.868073 0.91669601 2626.5061
-18.565525 22.806335 0.98002601 2477.228
-18.646805 22.935183 1.273609 2175.4839
-18.042431 22.580742 1.370134 3654.9529
-17.38114 22.567503 1.369491 2883.8799
-18.549866 22.542276 0.917 2982.3979
-17.554115 22.88909 1.149853 2510.282
-17.743996 21.514395 0.83122998 3478.6411
-17.763241 22.867558 0.79369998 2533.1941
-17.938629 21.712845 0.88565701 4219.2808
-17.524195 22.346136 1.3071899 3682.7219
-18.301464 21.99423 1.46355 4308.9609
-17.026796 22.421118 1.218226 2353.165
-17.284456 21.575489 0.74526602 2632.9709
-17.513336 21.848503 1.174822 3966.9099
-18.658409 21.839491 1.152792 3421.157
-18.33787 21.646528 1.044502 3957.959
-17.254478 22.449404 1.4125251 2773.26
-18.978886 22.372192 1.183372 2384.335
-18.859488 22.017744 0.75542301 2581.7339
-18.510935 21.591658 0.95617503 3361.9131
-18.708855 21.942598 1.175125 3319.1951
-18.927139 22.55057 0.91368401 2227.4771
-18.215784 22.294336 0.96366298 4205.0298
-18.921885 22.573751 1.149694 2291.9041
-17.767971 21.614477 0.85360301 3780.8459
-18.212919 21.585936 1.388526 3992.5669
-17.690889 22.740782 0.99817502 2967.2891
-18.671799 22.275646 1.374469 3209.79
-17.565351 22.232714 0.96162403 3846.457
-18.400314 22.334784 0.86946201 3619.0259
-17.484203 21.902023 1.242404 3914.0669
-17.136656 21.792543 0.9745 2718.4971
-17.125536 22.760145 0.85959601 2033.8571
-18.662575 22.563665 0.81225801 2621.8269
-17.605829 22.76058 1.081439 2860.5581
-17.153194 22.313711 0.89984101 2623.8589
-18.441061 22.379196 1.443154 3577.948
-17.949797 22.014662 0.94897902 4691.5459
-17.83901 22.967308 0.74623901 2306.803
-18.770357 22.799421 0.72785401 2036.29
-17.853016 22.767683 0.88313103 2921.6731
-17.208174 21.745558 0.70080298 2576.0869
-17.044844 22.291065 1.187147 2503.4961
-18.438259 22.241924 1.43749 3825.552
-18.957268 22.35055 1.114683 2443.165
-18.621031 21.754822 0.739501 3015.9509
-18.651979 22.032436 1.130336 3494.104
-18.69289 22.252321 1.063368 3200.1389
-18.27309 22.09029 1.362072 4508.5752
-18.87005 22.290836 1.074664 2692.105
-18.480967 21.512556 0.941616 3255.8621
-17.126387 22.850986 0.82196099 1900.929
-17.600471 21.689348 0.97321898 3823.926
-17.942362 22.0291 0.78338099 4245.418
-18.921333 22.977325 1.1597739 1782.127
-17.409428 22.316988 0.73203498 2997.1541
-17.094189 21.625902 0.738989 2300.9929
-17.930719 22.54381 0.77625698 3378.179
-17.479242 21.76388 1.470611 3570.989
-18.452946 21.951414 0.78199601 3617.2959
-18.517782 22.13809 1.268317 3870.4641
-18.190777 22.518776 0.93921101 3640.2429
-17.064924 22.593639 1.227872 2244.6169
-17.966667 21.876511 0.71614403 3998.4729
-17.609819 21.925035 0.92265099 4049.2949
-18.229755 21.589342 1.359551 4009.9971
-17.007191 22.744793 1.326755 1955.834
-18.982452 22.558973 1.250214 2192.802
-18.142368 21.752394 0.824022 4088.5149
-18.482035 21.560217 1.43971 3371.0259
-17.511583 22.611357 0.97419697 3006.0811
-18.888285 22.136841 1.217478 2765.366
-18.693863 21.860498 1.242211 3327.374
-18.850698 21.526039 1.069338 2544.0139
-18.830479 22.656612 0.70973498 2117.574
-18.627611 22.636063 1.4954571 2651.4419
-18.480173 22.3221 1.308521 3714.457
-18.752922 22.141432 0.79937601 2861.4031
-18.567766 21.568176 0.72829902 2887.948
-17.234543 21.804811 1.328658 3047.7119
-17.481815 22.48682 0.75651801 2937.3999
-18.821405 22.770212 1.331908 2187.864
-17.578541 22.27614 1.2767 3968.9961
-17.796249 22.346558 0.79690802 3776.1541
-17.339964 21.533598 1.1609941 3021.6931
-18.526594 22.139822 0.76182002 3358.2871
-18.033617 21.966799 1.027553 4845.1001
-17.719709 22.062658 1.0239739 4490.4502
-17.444254 22.086815 0.83197802 3443.928
-18.216528 22.28521 1.44223 4212.6411
-18.602015 21.895372 1.4430569 3490.5349
-17.079218 22.035658 1.084267 2684.5549
-18.176752 22.963688 0.91991401 2452.926
-17.782269 22.283739 1.145074 4421.1348
-18.952393 22.72434 1.060746 2039.8879
-17.677221 22.097042 1.328194 4424.6328
-17.514566 22.886889 1.224172 2471.8181
-17.675383 22.72509 1.324333 3036.5791
-17.53454 21.947819 0.996153 3965.3291
-18.593557 22.173082 0.86831802 3350.573
-17.382647 22.757627 1.287693 2547.3611
-18.355394 21.537443 0.76958799 3277.5759
-17.564726 22.828304 1.4628659 2571.1541
-18.52486 21.995888 0.95749402 3747.269
-17.523525 22.687807 1.4171129 2861.6479
-17.90398 21.614244 1.169531 4314.228
-17.313631 22.003963 1.367709 3335.0161
-18.759146 22.738901 1.340346 2334.2949
-17.703705 21.580847 1.446952 3775.105
-18.299608 22.433252 1.466193 3708.2849
-18.829376 22.35891 1.000067 2693.0181
-18.367865 22.412579 0.77017403 3355.0381
-17.371321 21.985207 1.4075069 3475.803
-18.873096 21.74217 1.372521 2690.2859
-17.550049 21.710306 1.385847 3785.248
-18.286903 22.493149 1.1557029 3766.563
-18.926008 21.70636 0.89432502 2454.4031
-17.744818 21.609049 0.93121201 3875.345
-17.520273 21.79887 1.036903 3854.48
-17.980627 22.41436 0.83622098 3833.1621
-18.899509 22.690369 0.76373899 2019.345
-17.523956 22.997475 0.81279701 2108.3721
-18.546053 22.133417 0.99948102 3686.822
-18.428385 22.561802 0.75607002 2947.75
-17.18453 22.095909 0.93714499 2868.1521
-17.128601 21.542908 0.92354101 2445.3491
-17.103691 21.960726 1.493856 2643.739
-18.742407 21.71269 1.47788 2922.384
-18.041683 21.593063 1.155959 4276.1558
-18.957457 21.81498 0.97557998 2498.3501
-18.012604 22.524841 0.99170297 3790.7339
-18.021568 22.763268 0.79171002 2857.563
-17.935755 21.763987 1.067975 4641.4019
-18.808989 22.037971 1.225063 3018.354
-17.469246 21.88022 1.437981 3696.3601
-17.089806 22.224537 1.372425 2619.719
-18.871256 22.122562 1.006115 2759.8391
-17.587318 21.641472 1.159241 3844.6479
-18.909546 21.700539 0.76150501 2370.5371
-17.289995 22.424482 1.0079941 2905.0181
-17.269445 21.627871 1.4126461 2911.3621
-17.376684 22.228245 1.361576 3408.9541
-18.372049 22.081259 1.179027 4365.0449
-17.311869 22.248974 0.92900902 3107.6179
-18.329948 22.502857 0.86472702 3391.811
-18.705835 22.445038 1.219885 2946.9709
-18.215237 21.562437 0.91833699 3796.156
-17.927549 21.578241 0.91122901 3947.8301
-18.451096 22.357145 1.2336 3753.2749
-17.192324 21.855453 0.70006299 2599.8689
-17.872103 22.117916 0.87689698 4406.6172
-17.182299 22.730358 1.22642 2269.8811
-18.798752 22.225998 0.768911 2666.7849
-17.768578 22.716112 1.0884629 3166.9351
-18.066881 22.491507 1.002696 3891.106
-17.423885 22.343014 1.210795 3449.031
-17.612883 21.550444 0.92421001 3501.3501
-17.681255 21.784185 1.026968 4244.0708
-18.528177 22.368628 1.269628 3521.853
-17.742809 22.764725 0.70765698 2640.8191
-18.494772 21.577572 0.88642001 3286.064
-17.542185 21.931631 1.374357 4017.1299
-18.54348 21.937674 1.20175 3848.3511
-18.380436 22.463406 1.25298 3670.3091
-18.402283 22.507662 1.2009799 3522.2371
-17.537853 22.354416 1.019254 3644.688
-17.733549 22.476334 1.142733 3842.6951
-17.145355 22.378283 0.758358 2417.136
-17.229143 22.780066 0.727332 2060.8899
-17.985123 21.571865 1.401397 4084.699
-17.286638 22.668297 1.444279 2481.1721
-18.148729 22.960716 0.86798501 2432.7
-17.081217 22.138359 0.739434 2409.1421
-17.954851 21.892559 0.88279903 4487.5308
-17.964813 21.537701 1.031546 4021.4409
-18.037937 22.096382 1.485272 4578.2988
-18.831894 21.67691 1.197076 2783.28
-17.486292 22.650759 0.793127 2698.4341
-17.002148 22.370359 1.376851 2310.373
-17.854692 22.341093 1.3228 4338.2471
-18.908751 22.886597 1.214317 1914.1801
-17.243322 21.778959 0.87251401 2892.4021
-17.313572 22.151892 0.96298999 3224.916
-18.712288 21.951553 1.298228 3290.8811
-18.522127 22.395441 0.90298301 3295.52
-18.108706 22.988779 1.43349 2446.1631
-18.848557 22.108988 0.96353602 2796.6699
-17.856659 22.795595 1.247358 3019.759
-18.053762 21.522467 0.95090997 3867.054
-17.466116 22.148142 0.90367401 3584.7749
-18.771765 22.171465 0.80051601 2801.7371
-18.370892 21.950708 0.70021701 3597.71
-17.301762 22.888897 0.851466 2084.071
-18.1339 21.566233 0.86588299 3794.438
-18.287848 21.594492 1.437694 3834.97
-18.026978 22.693771 1.087723 3345.26
-18.875204 22.35104 1.27879 2637.9399
-18.136578 22.376055 1.039418 4216.3579
-17.567204 21.847834 1.336957 4067.6069
-17.183163 22.841949 1.347456 2085.2051
-18.410271 22.125654 0.799923 3719.7629
-17.162895 21.623585 1.404657 2653.48
-18.044546 22.753098 0.94529599 3059.948
-18.113237 22.907621 1.3114181 2704.144
-18.006367 21.690298 0.89644402 4208.394
-18.59392 22.891453 1.445775 2264.6641
-17.442701 22.552383 0.75063598 2750.823
-17.876154 22.028687 0.90737998 4538.0801
-18.224449 22.32242 0.92124301 4058.3159
-18.554991 22.453432 1.06361 3263.2451
-17.376581 21.89152 1.034698 3502.03
-18.990559 22.287722 1.1101331 2413.052
-17.460815 22.526854 0.99894297 3108.0649
-18.610085 22.037041 1.30716 3609.9541
-18.623253 21.544626 1.3455271 3092.1689
-17.993464 22.597191 1.333761 3637.501
-17.5917 21.994671 0.93708199 4045.7561
-17.866997 22.804893 1.329147 2972.2581
-18.299255 22.451069 0.98573703 3734.3359
-18.26321 21.527447 0.71668702 3276.1589
-17.627378 22.04348 1.195838 4383.064
-17.916561 21.617044 1.127628 4314.606
-17.920582 21.710236 1.206356 4585.8462
-18.144609 22.379499 0.81036401 3797.2361
-17.880814 22.116615 0.80577999 4225.7798
-17.376608 22.589811 1.029373 2831.8831
-18.672155 22.031244 0.94698602 3296.448
-18.733358 22.476616 1.3886811 2776.8879
-18.356466 21.723379 0.96803403 3976.4741
-18.218777 21.860104 1.074729 4616.2632
-17.696466 22.482056 1.104719 3749.2839
-17.178013 22.869347 0.83745998 1950.946
-17.36496 22.59333 1.328091 2822.1101
-17.505095 22.330521 1.301028 3664.6641
-17.311764 22.534994 0.75314701 2551.585
-18.254808 21.744822 1.192283 4424.377
-18.807762 22.48299 1.442453 2571.2971
-17.652327 21.908691 1.4598759 4177.9839
-17.41692 22.588091 1.128852 2957.011
-17.902788 21.979122 1.104704 4906.9302
-17.280794 22.588394 0.707376 2374.01
-18.207153 22.717684 0.70838499 2778.2891
-17.741333 21.797764 0.798428 3939.896
-18.617367 22.27895 1.27992 3412.1731
-17.434671 21.707479 1.190637 3558.0801
-17.626963 21.660265 1.096491 3951.6599
-18.167643 21.803001 0.79669797 4066.478
-17.138519 21.637966 1.148578 2665.4451
-18.495054 22.755732 1.235564 2751.072
-17.566994 21.900286 1.322381 4123.999
-17.129133 22.202002 0.71678901 2459.7739
-17.682676 22.807146 0.95156902 2756.4939
-17.423244 21.650219 1.00757 3351.156
-17.838276 21.950798 0.737468 4024.1069
-18.517742 22.874804 0.79453897 2275.0691
-18.017836 22.151371 0.802912 4234.0229
-17.447138 21.925844 1.100015 3784.5759
-17.417198 21.911997 0.91562301 3500.731
-18.267927 21.932903 0.92619801 4343.0859
-17.324421 22.010342 1.003148 3343.886
-18.658567 22.186577 1.289951 3386.126
-18.551512 22.675184 1.05941 2809.2991
-18.042381 22.10351 1.046031 4825.2461
-18.910265 22.779669 1.111294 2045.548
-18.834572 21.833239 1.1256959 2890.4431
-17.957287 22.472622 1.327438 4027.595
-17.753426 22.286066 1.066079 4308.2339
-17.834244 22.679333 0.819821 3060.9041
-18.539967 22.353399 1.014945 3446.6089
-18.95528 22.886435 0.92004502 1800.698
-18.888197 22.363018 1.319104 2584.165
-17.718115 21.577156 1.420898 3825.4009
-18.707138 21.797268 1.187564 3244.0161
-17.878567 22.104393 1.454982 4584.3809
-18.386112 22.683334 1.429934 2995.9871
-18.223478 22.937363 1.433733 2521.1521
-17.798576 22.115084 1.175149 4741.8818
-18.254313 21.579323 1.018356 3922.6799
-18.979822 22.351782 1.140903 2395.4451
-18.222645 21.723618 1.37868 4318.2222
-18.426397 22.764088 1.1268981 2823.281
-18.331869 22.584272 0.71403301 2962.6531
-17.803602 21.990898 1.45017 4540.3389
-18.976025 22.528234 0.71826798 2029.449
-17.884674 21.527653 1.410472 3904.082
-18.556925 21.923798 1.072408 3753.0439
-17.918831 22.836119 0.973131 2845.512
-18.5513 22.107264 1.007053 3696.406
-17.830597 22.328594 0.76623499 3774.0859
-17.88891 22.737925 1.137881 3203.6221
-17.34589 21.702471 1.1449111 3290.7339
-18.607145 21.627878 0.78386497 2975.718
-17.629791 21.707376 1.4999419 3809.093
-17.743437 22.014765 0.81492501 4117.5132
-17.204124 22.483845 1.2337739 2675.708
-17.23428 22.509706 0.87278199 2559.8999
-17.692598 22.128769 1.026975 4382.063
-18.556866 21.572397 1.300779 3326.4629
-18.658361 21.588036 1.3245699 3088.9509
-18.450533 22.843637 1.259298 2606.584
-17.675985 22.144436 1.1826839 4439.918
-17.167637 22.396557 0.852382 2536.8811
-17.26753 22.14319 1.150638 3206.2549
-18.272871 21.93354 1.339715 4552.0942
-17.770002 22.203648 1.036727 4460.186
-18.440014 22.735767 1.274819 2872.634
-18.479725 22.041731 1.0848449 4015.6179
-17.272778 22.405615 0.77619702 2669.5359
-18.293039 22.697449 0.86745298 2971.071
-18.566425 22.457285 0.71316397 2829.7229
-17.175421 22.582069 1.0227849 2438.8579
-18.052574 22.355055 1.416129 4253.3638
-18.610554 21.91787 0.82351398 3286.741
-18.099119 22.975847 1.231721 2546.9819
-17.5616 21.621311 1.21507 3743.001
-18.833311 21.663769 1.388548 2712.9509
-17.962353 21.648115 1.04339 4348.709
-17.020571 22.648588 0.89139497 2020.052
-17.959829 22.696108 0.87384301 3139.604
-18.145126 21.878729 1.3037831 4777.6519
-18.864744 22.550905 1.342374 2413.6489
-18.21401 22.940287 0.70804 2302.062
-18.065781 22.169056 1.139671 4823.7109
-17.167402 22.704855 0.906582 2196.708
-17.096889 21.76527 1.2152309 2672.4561
-17.56085 21.756105 1.204905 3992.4561
-18.601946 22.091625 0.92419797 3455.9041
-17.479176 22.870178 0.79237503 2278.29
-17.347118 21.992712 1.444522 3364.5129
-18.192387 21.680475 1.256478 4377.1392
-18.87816 22.323477 0.940952 2573.4609
-18.995626 22.165956 1.49667 2373.24
-17.267967 22.364119 1.129645 2987.9231
-18.491301 22.068703 1.0193419 3910.1201
-17.678204 22.943256 1.227662 2507.457
-17.165842 22.865553 1.367735 2021.726
-17.949375 22.398054 1.1718481 4303.6548
-18.328506 22.539986 0.86452502 3306.783
-17.233454 22.738688 0.80210501 2181.9089
-18.70813 21.927355 0.957151 3193.4609
-18.29793 22.315004 1.428881 4031.0339
-17.098314 22.212584 1.279027 2681.7229
-18.591648 22.728596 1.31256 2640.5161
-17.989349 22.866417 1.187631 2855.6011
-18.206078 21.975437 1.2732559 4769.0029
-18.737427 22.966394 0.744807 1862.254
-18.948217 22.125555 1.101575 2597.9861
-18.227453 22.676685 1.340403 3269.3601
-18.759087 22.731386 1.1709059 2367.4419
-17.195869 22.238817 0.75782901 2632.7219
-17.948284 21.664282 1.287758 4452.0308
-18.234083 22.723339 1.3055969 3146.302
-18.847528 21.955713 0.81600899 2677.0681
-17.833294 22.244642 1.439278 4367.2109
-17.818579 22.534609 0.70657003 3200.6279
-17.212408 22.776583 0.76618898 2073.334
-17.474348 22.857189 1.38249 2445.7229
-17.825321 22.206486 1.467303 4368.3379
-18.99741 22.216703 0.86409599 2320.5979
-18.241243 22.706053 1.4330961 3103.583
-17.021763 21.762848 1.177187 2482.979
-18.629164 22.752565 0.99058998 2492.4529
-18.335159 22.114201 0.73793298 3734.4661
-18.264915 22.912971 0.92196101 2523.9751
-18.558344 22.577639 0.98482198 2955.5801
-18.190882 21.988934 1.4920779 4456.8521
-17.978092 21.765257 1.407609 4550.8911
-18.664709 22.771582 0.85469598 2318.666
-18.695059 21.92568 0.75367802 2962.3799
-18.488317 21.969278 1.153904 4027.314
-18.946239 22.574251 1.352111 2223.9309
-17.035025 21.637636 0.91064602 2329.689
-18.46303 22.830812 1.397885 2572.272
-18.218491 22.000355 1.153505 4762.3589
-18.224499 21.983732 1.242835 4750.5991
-17.597429 22.314051 1.1580141 3960.542
-18.4715 21.620346 1.45901 3487.8789
-18.854 21.958811 1.321173 2864.1851
-17.024733 22.702984 1.494964 1974.459
-17.709919 22.993671 0.945135 2340.293
-17.710663 21.934376 1.263532 4578.5068
-18.08436 21.668987 1.011701 4339.7388
-18.229975 22.929338 0.98451298 2547.1279
-17.315641 21.687914 0.75686997 2837.512
-18.59219 22.557219 1.0861959 2986.6201
-18.832796 22.510502 1.206111 2558.5911
-18.438305 21.552542 1.122048 3575.502
-17.52977 22.737453 1.019058 2781.343
-18.420595 21.77776 1.075245 4026.2329
-17.47044 21.604156 1.38952 3394.3279
-18.291683 22.913921 0.98593998 2543.0371
-18.196892 22.702223 0.80161703 2957.543
-18.293558 21.889496 1.3278821 4485.3428
-17.869547 22.707502 0.78768998 2962.8259
-17.839672 22.558634 1.4124039 3615.614
-18.495852 22.353113 0.71620899 3116.02
-18.490076 21.536478 0.73497498 2991.7271
-17.066427 21.704742 0.94661999 2471.6541
-18.574533 22.896297 1.044652 2317.4199
-18.150246 21.622353 0.90264899 3988.4871
-17.684605 22.301476 0.78903002 3678.4751
-17.825994 22.520901 1.485237 3615.394
-17.458338 22.693628 0.73101199 2506.9331
-18.22444 22.511538 0.92949098 3609.541
-18.633846 22.903311 0.784697 2091.8701
-17.683466 22.986347 1.463455 2333.739
-18.201256 22.038464 0.91364801 4448.4751
-18.526493 22.080063 0.90378898 3646.054
-18.630325 21.621368 0.75479901 2875.4231
-17.886309 22.114069 0.860856 4382.29
-17.098661 21.775196 0.899252 2559.6431
-18.852156 22.798836 0.78662097 1972.24
-17.354973 22.406511 1.087512 3136.8311
-18.099236 22.221146 1.097446 4676.0869
-18.197184 21.697323 1.22269 4420.8252
-17.361845 22.432581 1.2812231 3123.116
-18.371342 22.152071 1.117569 4281.501
-17.463308 21.896809 1.497889 3603.802
-18.841507 22.696463 1.277783 2273.5081
-17.663679 21.526663 1.216123 3738.5391
-18.581169 22.85224 1.11939 2414.7949
-18.750776 22.299049 1.251856 3019.7129
-18.652357 22.952427 1.364365 2118.9131
-18.792267 21.972546 1.1388659 3063.3921
-18.412102 21.897404 1.321172 4183.9761
-18.389214 22.268694 1.224346 4084.043
-17.506073 22.295179 1.228996 3753.937
-18.101698 22.646324 1.341831 3452.5791
-18.678106 21.733128 0.76231998 2902.5669
-17.506962 21.888247 0.81898999 3569.531
-17.072271 22.205843 1.118785 2618.2859
-18.163115 21.832405 1.2605129 4724.3081
-18.968094 21.518991 0.766936 2122.1331
-17.457178 22.99338 1.496823 2110.0959
-17.171675 21.929283 1.308942 2936.0081
-18.299244 21.589611 1.3078049 3938.2871
-17.142262 22.892769 1.044839 1955.549
-17.031775 22.652624 1.481503 2046.9771
-18.380205 22.365255 0.70091802 3274.2849
-17.429869 22.231277 1.0837671 3591.8259
-17.432455 22.769867 1.369784 2572.5081
-17.438475 22.589552 0.77312303 2709.8721
-18.107681 22.227734 1.441137 4457.896
-17.198071 21.700937 0.87163597 2716.8721
-18.415384 22.014767 1.319216 4212.3901
-18.451084 21.722069 0.97834599 3759.8149
-17.46686 22.888493 1.386346 2371.4839
-17.531172 22.766851 1.230033 2764.3201
-17.613195 22.260656 0.79458898 3618.1609
-17.405441 22.326921 0.92812902 3258.833
-18.656393 22.753454 0.99400598 2449.801
-18.367188 21.919855 1.143591 4368.9819
-18.88932 22.624613 1.414216 2245.2539
-17.274734 22.41876 0.83384001 2724.1399
-18.10243 22.972481 0.70966101 2276.2029
-17.686567 22.553091 1.0723 3519.9951
-18.073215 22.589958 0.71325499 3143.9971
-17.70977 21.60597 0.85722399 3684.6321
-17.170916 21.625286 1.32771 2711.3469
-18.509617 22.932529 1.312904 2334.1919
-18.351513 22.444628 1.314989 3746.7891
-17.15173 21.534704 0.84194601 2422.1689
-18.73744 21.757776 1.363428 3068.9951
-18.104588 22.960941 1.1522681 2581.812
-17.523317 22.324301 0.75876099 3274.2051
-17.868183 22.246735 0.744982 3890.156
-17.102858 21.938688 1.099874 2749.2959
-17.613855 22.322741 1.176487 3987.8069
-17.271585 21.967037 0.905743 3089.7361
-18.077656 21.729582 0.87892598 4229.2388
-17.39963 22.008575 1.466252 3493.064
-18.213385 21.699631 1.050414 4317.3052
-17.935734 22.277451 0.73240602 3846.8831
-17.285629 21.530357 1.0173711 2834.0769
-18.255194 21.544003 1.122334 3909.03
-17.822214 21.647842 0.83937299 3889.01
-17.571089 22.260216 0.72329599 3380.8379
-17.500141 22.265528 0.73973799 3263.2729
-17.190212 21.802029 1.202186 2949.9341
-17.07543 22.449162 0.78144902 2240.384
-17.028191 22.972757 1.258388 1727.6639
-18.463387 21.775463 1.199067 3952.116
-17.376289 22.402519 1.452316 3096.551
-17.910765 22.518579 0.72739601 3332.7981
-17.887615 22.235701 0.93622398 4394.5879
-17.145741 21.605661 1.198256 2652.1499
-17.767584 21.787497 1.0771 4487.207
-17.099451 22.153509 1.186739 2725.2009
-18.807493 21.556482 1.0006959 2647.635
-18.191635 21.509163 1.497336 3660.176
-17.174864 22.381044 1.348279 2705.5791
-18.439283 22.408459 1.129778 3663.707
-18.974966 21.768806 0.747284 2263.5081
-17.967686 21.804886 1.065942 4729.9868
